ncols         48
nrows         38
xllcorner     283947.7680525
yllcorner     4412485.0804487
cellsize      0.5
NODATA_value  -9999
-9999 -9999 1440.285 1440.376 1440.56 1440.751 1440.95 1441.138 1441.314 1441.521 1441.76 1442.001 1442.245 1442.512 1442.803 1443.066 1443.302 1443.565 1443.856 1444.139 1444.413 1444.687 1444.962 1445.241 1445.526 1445.844 1446.195 1446.51 1446.788 1447.083 1447.394 1447.706 1448.017 1448.345 1448.689 1449.026 1449.357 1449.687 1450.018 1450.391 1450.806 1451.187 1451.534 1451.828 1452.071 1452.932 1454.413 1455.153 
-9999 -9999 1440.318 1440.4 1440.564 1440.749 1440.956 1441.147 1441.324 1441.536 1441.784 1442.03 1442.274 1442.536 1442.817 1443.082 1443.333 1443.603 1443.893 1444.175 1444.45 1444.719 1444.984 1445.26 1445.547 1445.864 1446.21 1446.522 1446.801 1447.097 1447.409 1447.722 1448.038 1448.371 1448.722 1449.065 1449.4 1449.73 1450.055 1450.413 1450.805 1451.165 1451.496 1452.042 1452.804 1453.781 1454.975 1455.572 
-9999 -9999 1440.385 1440.448 1440.573 1440.746 1440.967 1441.166 1441.344 1441.565 1441.832 1442.088 1442.333 1442.584 1442.843 1443.113 1443.395 1443.679 1443.966 1444.248 1444.523 1444.784 1445.029 1445.298 1445.591 1445.904 1446.238 1446.546 1446.828 1447.125 1447.438 1447.756 1448.079 1448.423 1448.787 1449.141 1449.486 1449.815 1450.13 1450.459 1450.801 1451.122 1451.42 1452.469 1454.269 1455.479 1456.099 1456.408 
-9999 -9999 1440.437 1440.501 1440.63 1440.77 1440.988 1441.184 1441.36 1441.593 1441.883 1442.146 1442.382 1442.619 1442.858 1443.135 1443.45 1443.745 1444.022 1444.303 1444.588 1444.833 1445.037 1445.295 1445.608 1445.935 1446.278 1446.588 1446.865 1447.16 1447.473 1447.791 1448.115 1448.471 1448.859 1449.218 1449.548 1449.865 1450.169 1450.458 1450.731 1450.902 1450.973 1452.437 1455.296 1456.238 1456.638 1456.839 
-9999 -9999 1440.472 1440.56 1440.736 1440.898 1441.027 1441.197 1441.408 1441.655 1441.937 1442.187 1442.403 1442.633 1442.876 1443.16 1443.484 1443.775 1444.032 1444.311 1444.612 1444.839 1444.993 1445.245 1445.595 1445.954 1446.324 1446.649 1446.93 1447.224 1447.529 1447.842 1448.163 1448.529 1448.939 1449.276 1449.54 1449.824 1450.127 1450.382 1450.59 1450.727 1450.792 1452.153 1454.81 1456.056 1456.593 1456.862 
-9999 -9999 1440.525 1440.624 1440.824 1440.993 1441.094 1441.26 1441.491 1441.726 1441.966 1442.194 1442.411 1442.631 1442.854 1443.124 1443.442 1443.731 1443.992 1444.28 1444.593 1444.838 1445.013 1445.274 1445.622 1445.971 1446.323 1446.652 1446.957 1447.256 1447.549 1447.871 1448.221 1448.585 1448.962 1449.275 1449.523 1449.764 1449.999 1450.583 1451.518 1451.859 1451.606 1452.614 1454.882 1456.108 1456.649 1456.92 
-9999 -9999 1440.594 1440.694 1440.893 1441.056 1441.19 1441.374 1441.608 1441.807 1441.97 1442.169 1442.405 1442.613 1442.793 1443.03 1443.322 1443.613 1443.902 1444.209 1444.532 1444.828 1445.097 1445.383 1445.688 1445.986 1446.278 1446.597 1446.944 1447.256 1447.533 1447.877 1448.288 1448.639 1448.93 1449.216 1449.495 1449.685 1449.784 1451.06 1453.513 1454.297 1453.413 1453.817 1455.511 1456.392 1456.806 1457.013 
-9999 -9999 1440.7 1440.805 1441.014 1441.191 1441.346 1441.531 1441.748 1441.907 1442.008 1442.176 1442.411 1442.618 1442.797 1443.012 1443.264 1443.549 1443.868 1444.185 1444.501 1444.811 1445.114 1445.411 1445.701 1445.989 1446.274 1446.605 1446.98 1447.294 1447.547 1447.882 1448.3 1448.655 1448.946 1449.237 1449.528 1449.877 1450.282 1451.862 1454.617 1455.619 1454.868 1455.022 1456.082 1456.651 1456.972 1457.133 
-9999 -9999 1440.842 1440.957 1441.187 1441.398 1441.56 1441.731 1441.911 1442.027 1442.079 1442.213 1442.43 1442.648 1442.866 1443.072 1443.266 1443.538 1443.888 1444.209 1444.501 1444.786 1445.066 1445.358 1445.662 1445.98 1446.314 1446.675 1447.062 1447.368 1447.591 1447.888 1448.258 1448.632 1449.009 1449.339 1449.622 1450.339 1451.492 1452.989 1454.83 1455.823 1455.97 1456.228 1456.595 1456.883 1457.148 1457.28 
-9999 -9999 1440.951 1441.077 1441.328 1441.56 1441.716 1441.87 1442.022 1442.096 1442.093 1442.202 1442.424 1442.655 1442.894 1443.101 1443.276 1443.535 1443.875 1444.175 1444.434 1444.705 1444.988 1445.275 1445.566 1445.917 1446.329 1446.736 1447.138 1447.448 1447.667 1447.936 1448.257 1448.646 1449.101 1449.477 1449.774 1450.505 1451.672 1453.149 1454.937 1456.072 1456.552 1456.841 1456.94 1457.124 1457.374 1457.499 
-9999 -9999 1441.026 1441.163 1441.437 1441.676 1441.813 1441.947 1442.079 1442.113 1442.049 1442.143 1442.394 1442.639 1442.879 1443.098 1443.297 1443.54 1443.828 1444.081 1444.3 1444.566 1444.88 1445.163 1445.414 1445.799 1446.318 1446.787 1447.207 1447.536 1447.774 1448.028 1448.298 1448.695 1449.22 1449.65 1449.984 1450.375 1450.822 1452.344 1454.94 1456.363 1456.612 1456.863 1457.116 1457.373 1457.652 1457.792 
-9999 -9999 1441.085 1441.232 1441.525 1441.842 1442.199 1442.459 1442.621 1442.704 1442.706 1442.602 1442.391 1442.447 1442.768 1443.057 1443.313 1443.565 1443.813 1444.039 1444.245 1444.508 1444.829 1445.105 1445.336 1445.7 1446.196 1446.722 1447.28 1447.66 1447.863 1448.137 1448.482 1448.857 1449.261 1449.645 1450.01 1450.279 1450.45 1451.638 1453.841 1455.005 1455.129 1455.821 1457.082 1457.556 1457.815 1457.945 
-9999 -9999 1441.127 1441.282 1441.592 1442.058 1442.876 1443.406 1443.65 1443.869 1444.064 1443.579 1442.415 1442.076 1442.562 1442.979 1443.327 1443.61 1443.83 1444.049 1444.268 1444.529 1444.833 1445.101 1445.334 1445.621 1445.962 1446.54 1447.357 1447.82 1447.931 1448.262 1448.811 1449.131 1449.222 1449.462 1449.852 1450.216 1450.556 1451.031 1451.642 1451.999 1452.103 1453.715 1456.835 1457.672 1457.864 1457.96 
-9999 -9999 1441.127 1441.316 1441.693 1442.28 1443.32 1443.986 1444.279 1444.541 1444.771 1444.283 1443.075 1442.534 1442.659 1442.916 1443.306 1443.653 1443.956 1444.229 1444.472 1444.688 1444.877 1445.124 1445.429 1445.712 1445.974 1446.521 1447.352 1447.82 1447.924 1448.278 1448.882 1449.192 1449.209 1449.397 1449.755 1450.125 1450.508 1450.651 1450.556 1450.588 1450.747 1452.425 1455.621 1456.779 1457.258 1457.498 
-9999 -9999 1441.086 1441.334 1441.829 1442.507 1443.531 1444.199 1444.51 1444.72 1444.829 1444.713 1444.372 1443.82 1443.058 1442.868 1443.252 1443.693 1444.191 1444.579 1444.857 1444.985 1444.961 1445.173 1445.621 1445.974 1446.234 1446.664 1447.266 1447.658 1447.84 1448.185 1448.694 1449.04 1449.222 1449.449 1449.719 1450.004 1450.305 1450.498 1450.584 1450.772 1451.061 1451.951 1453.441 1454.875 1455.998 1456.559 
-9999 -9999 1440.998 1441.311 1441.938 1442.688 1443.631 1444.268 1444.599 1444.781 1444.812 1444.886 1445.003 1444.5 1443.376 1442.979 1443.308 1443.753 1444.313 1444.747 1445.055 1445.171 1445.097 1445.344 1445.914 1446.331 1446.597 1446.933 1447.339 1447.627 1447.797 1448.118 1448.589 1448.942 1449.177 1449.422 1449.677 1449.928 1450.175 1450.395 1450.588 1450.869 1451.237 1451.721 1452.32 1453.599 1454.752 1455.328 
-9999 -9999 1440.863 1441.248 1442.018 1442.823 1443.62 1444.195 1444.548 1444.724 1444.722 1444.804 1444.968 1444.572 1443.615 1443.249 1443.476 1443.834 1444.324 1444.734 1445.064 1445.247 1445.284 1445.638 1446.308 1446.784 1447.063 1447.326 1447.572 1447.728 1447.796 1448.075 1448.565 1448.898 1449.072 1449.317 1449.63 1449.898 1450.119 1450.343 1450.569 1450.88 1451.275 1451.735 1452.26 1452.95 1453.52 1453.805 
-9999 -9999 1440.764 1441.198 1442.064 1442.94 1443.66 1444.198 1444.554 1444.717 1444.685 1444.693 1444.739 1444.398 1443.667 1443.404 1443.607 1443.929 1444.368 1444.763 1445.114 1445.355 1445.487 1445.865 1446.489 1446.967 1447.298 1447.534 1447.675 1447.78 1447.848 1448.116 1448.584 1448.895 1449.049 1449.293 1449.626 1449.909 1450.141 1450.383 1450.635 1450.95 1451.328 1451.757 1452.235 1452.608 1452.872 1453.004 
-9999 -9999 1440.7 1441.159 1442.077 1443.039 1443.753 1444.279 1444.617 1444.758 1444.701 1444.554 1444.316 1443.977 1443.535 1443.444 1443.703 1444.037 1444.446 1444.836 1445.206 1445.496 1445.707 1446.027 1446.457 1446.881 1447.301 1447.557 1447.65 1447.782 1447.953 1448.24 1448.645 1448.933 1449.107 1449.35 1449.664 1449.961 1450.241 1450.517 1450.787 1451.081 1451.397 1451.786 1452.247 1452.575 1452.809 1452.926 
-9999 -9999 1440.705 1441.092 1441.867 1442.793 1443.794 1444.42 1444.669 1444.74 1444.632 1444.38 1443.983 1443.687 1443.49 1443.536 1443.826 1444.169 1444.563 1444.939 1445.295 1445.616 1445.902 1446.2 1446.511 1446.87 1447.279 1447.539 1447.649 1447.83 1448.081 1448.379 1448.723 1448.985 1449.164 1449.415 1449.737 1450.036 1450.312 1450.643 1451.028 1451.338 1451.571 1451.884 1452.277 1452.592 1452.83 1452.949 
-9999 -9999 1440.78 1440.998 1441.434 1442.2 1443.786 1444.622 1444.711 1444.662 1444.477 1444.169 1443.741 1443.528 1443.532 1443.682 1443.979 1444.325 1444.721 1445.073 1445.382 1445.715 1446.073 1446.384 1446.651 1446.934 1447.234 1447.48 1447.672 1447.923 1448.233 1448.532 1448.82 1449.05 1449.221 1449.486 1449.844 1450.133 1450.352 1450.761 1451.358 1451.721 1451.848 1452.05 1452.325 1452.657 1452.936 1453.076 
-9999 -9999 1440.875 1441.001 1441.252 1441.809 1443.25 1444.022 1444.126 1444.121 1444.008 1443.814 1443.54 1443.475 1443.619 1443.841 1444.141 1444.475 1444.844 1445.193 1445.522 1445.857 1446.199 1446.488 1446.724 1446.959 1447.195 1447.44 1447.694 1447.992 1448.332 1448.611 1448.828 1449.033 1449.227 1449.528 1449.936 1450.259 1450.495 1451.001 1451.778 1452.181 1452.211 1452.337 1452.56 1452.864 1453.128 1453.26 
-9999 -9999 1440.992 1441.102 1441.322 1441.618 1442.187 1442.62 1442.915 1443.117 1443.225 1443.313 1443.382 1443.528 1443.752 1444.014 1444.312 1444.618 1444.933 1445.298 1445.714 1446.042 1446.281 1446.51 1446.73 1446.947 1447.163 1447.418 1447.714 1448.034 1448.378 1448.616 1448.748 1448.937 1449.182 1449.541 1450.012 1450.412 1450.739 1451.365 1452.288 1452.719 1452.658 1452.746 1452.983 1453.213 1453.407 1453.504 
-9999 -9999 1441.114 1441.215 1441.416 1441.592 1441.744 1441.993 1442.342 1442.633 1442.868 1443.102 1443.334 1443.587 1443.858 1444.152 1444.467 1444.766 1445.049 1445.428 1445.903 1446.25 1446.469 1446.667 1446.843 1447.023 1447.208 1447.457 1447.772 1448.098 1448.433 1448.663 1448.788 1448.996 1449.286 1449.658 1450.112 1450.675 1451.347 1452.038 1452.749 1453.1 1453.09 1453.192 1453.406 1453.597 1453.763 1453.846 
-9999 -9999 1441.243 1441.34 1441.535 1441.733 1441.919 1442.144 1442.406 1442.67 1442.937 1443.18 1443.398 1443.651 1443.937 1444.255 1444.604 1444.916 1445.191 1445.582 1446.089 1446.483 1446.764 1446.958 1447.063 1447.186 1447.329 1447.557 1447.869 1448.182 1448.497 1448.753 1448.949 1449.211 1449.54 1449.881 1450.236 1451.048 1452.318 1453.022 1453.161 1453.323 1453.508 1453.677 1453.829 1454.016 1454.197 1454.287 
-9999 -9999 1441.338 1441.432 1441.621 1441.829 1442.053 1442.274 1442.492 1442.74 1443.017 1443.269 1443.496 1443.751 1444.034 1444.365 1444.743 1445.067 1445.335 1445.703 1446.172 1446.559 1446.864 1447.077 1447.196 1447.341 1447.51 1447.75 1448.061 1448.363 1448.657 1448.928 1449.175 1449.452 1449.758 1450.245 1450.915 1451.836 1453.009 1453.529 1453.396 1453.508 1453.865 1454.125 1454.289 1454.502 1454.719 1454.828 
-9999 -9999 1441.399 1441.491 1441.674 1441.88 1442.145 1442.385 1442.601 1442.842 1443.107 1443.369 1443.627 1443.887 1444.149 1444.482 1444.884 1445.217 1445.48 1445.792 1446.153 1446.479 1446.769 1447.024 1447.244 1447.486 1447.75 1448.038 1448.348 1448.64 1448.913 1449.189 1449.467 1449.718 1449.941 1450.751 1452.148 1453.038 1453.421 1453.56 1453.454 1453.655 1454.16 1454.537 1454.784 1455.055 1455.33 1455.467 
-9999 -9999 1441.463 1441.557 1441.747 1441.966 1442.273 1442.533 1442.748 1442.978 1443.225 1443.488 1443.766 1444.032 1444.285 1444.6 1444.977 1445.302 1445.576 1445.856 1446.145 1446.457 1446.794 1447.091 1447.349 1447.622 1447.912 1448.209 1448.513 1448.799 1449.068 1449.346 1449.634 1449.889 1450.111 1450.921 1452.32 1453.167 1453.463 1453.651 1453.73 1454.057 1454.631 1455.053 1455.324 1455.579 1455.853 1455.99 
-9999 -9999 1441.528 1441.632 1441.838 1442.086 1442.437 1442.719 1442.932 1443.149 1443.37 1443.626 1443.915 1444.186 1444.441 1444.719 1445.021 1445.322 1445.622 1445.896 1446.146 1446.494 1446.939 1447.278 1447.511 1447.75 1447.996 1448.265 1448.557 1448.842 1449.12 1449.398 1449.676 1449.965 1450.267 1450.756 1451.432 1452.225 1453.135 1453.802 1454.224 1454.716 1455.276 1455.674 1455.909 1456.074 1456.288 1456.395 
-9999 -9999 1441.618 1441.729 1441.95 1442.214 1442.575 1442.867 1443.091 1443.305 1443.509 1443.765 1444.073 1444.347 1444.586 1444.837 1445.099 1445.379 1445.677 1445.941 1446.171 1446.535 1447.034 1447.4 1447.633 1447.861 1448.084 1448.34 1448.63 1448.911 1449.184 1449.46 1449.739 1450.03 1450.331 1450.822 1451.5 1452.321 1453.282 1453.994 1454.455 1454.972 1455.544 1455.971 1456.252 1456.431 1456.657 1456.771 
-9999 -9999 1441.732 1441.849 1442.082 1442.348 1442.686 1442.978 1443.224 1443.445 1443.64 1443.906 1444.243 1444.515 1444.722 1444.954 1445.211 1445.474 1445.742 1445.99 1446.218 1446.581 1447.079 1447.457 1447.715 1447.955 1448.178 1448.436 1448.731 1449.005 1449.257 1449.53 1449.826 1450.083 1450.304 1451.118 1452.526 1453.455 1453.905 1454.227 1454.422 1454.825 1455.436 1455.945 1456.354 1456.649 1456.96 1457.115 
-9999 -9999 1441.838 1441.963 1442.213 1442.483 1442.79 1443.073 1443.333 1443.577 1443.807 1444.078 1444.392 1444.653 1444.86 1445.092 1445.348 1445.596 1445.834 1446.08 1446.333 1446.672 1447.098 1447.456 1447.746 1448.017 1448.268 1448.54 1448.832 1449.103 1449.353 1449.623 1449.913 1450.149 1450.33 1451.349 1453.205 1454.189 1454.299 1454.417 1454.544 1454.879 1455.423 1455.923 1456.378 1456.735 1457.078 1457.249 
-9999 -9999 1441.935 1442.071 1442.343 1442.619 1442.887 1443.153 1443.416 1443.702 1444.011 1444.283 1444.521 1444.76 1445.002 1445.252 1445.51 1445.744 1445.954 1446.211 1446.515 1446.808 1447.089 1447.395 1447.727 1448.047 1448.356 1448.651 1448.931 1449.204 1449.472 1449.738 1450.001 1450.225 1450.41 1451.515 1453.54 1454.523 1454.466 1454.564 1454.819 1455.133 1455.507 1455.904 1456.325 1456.687 1457.01 1457.171 
-9999 -9999 1442.045 1442.185 1442.464 1442.736 1442.973 1443.23 1443.51 1443.812 1444.135 1444.411 1444.639 1444.881 1445.135 1445.391 1445.649 1445.893 1446.122 1446.381 1446.667 1446.925 1447.153 1447.454 1447.827 1448.16 1448.454 1448.744 1449.03 1449.313 1449.594 1449.857 1450.103 1450.375 1450.674 1451.78 1453.691 1454.644 1454.638 1454.777 1455.061 1455.349 1455.64 1455.973 1456.349 1456.697 1457 1457.152 
-9999 -9999 1442.168 1442.303 1442.575 1442.834 1443.046 1443.306 1443.615 1443.906 1444.18 1444.46 1444.748 1445.014 1445.259 1445.51 1445.767 1446.043 1446.34 1446.589 1446.79 1447.024 1447.29 1447.631 1448.047 1448.357 1448.562 1448.82 1449.131 1449.43 1449.717 1449.98 1450.217 1450.598 1451.123 1452.144 1453.66 1454.55 1454.816 1455.056 1455.271 1455.526 1455.821 1456.129 1456.45 1456.765 1457.05 1457.193 
-9999 -9999 1442.267 1442.398 1442.661 1442.914 1443.158 1443.424 1443.712 1443.993 1444.267 1444.553 1444.851 1445.127 1445.381 1445.638 1445.896 1446.173 1446.467 1446.712 1446.91 1447.149 1447.43 1447.754 1448.121 1448.429 1448.676 1448.953 1449.26 1449.552 1449.83 1450.101 1450.366 1450.813 1451.443 1452.419 1453.742 1454.601 1454.995 1455.293 1455.495 1455.736 1456.014 1456.3 1456.593 1456.875 1457.146 1457.282 
-9999 -9999 1442.342 1442.469 1442.723 1442.991 1443.274 1443.547 1443.809 1444.084 1444.374 1444.666 1444.961 1445.24 1445.504 1445.764 1446.022 1446.29 1446.568 1446.81 1447.017 1447.26 1447.538 1447.836 1448.153 1448.47 1448.785 1449.094 1449.399 1449.682 1449.943 1450.201 1450.458 1450.903 1451.537 1452.575 1454.018 1454.918 1455.275 1455.545 1455.727 1455.946 1456.204 1456.474 1456.756 1457.028 1457.289 1457.42 
-9999 -9999 1442.38 1442.505 1442.754 1443.03 1443.333 1443.608 1443.857 1444.13 1444.427 1444.723 1445.016 1445.297 1445.565 1445.828 1446.085 1446.349 1446.618 1446.859 1447.071 1447.315 1447.592 1447.876 1448.17 1448.49 1448.839 1449.165 1449.468 1449.746 1449.999 1450.251 1450.505 1450.949 1451.584 1452.653 1454.156 1455.076 1455.416 1455.671 1455.842 1456.052 1456.298 1456.561 1456.837 1457.104 1457.361 1457.489 
